14.265848,-4.635255,60.552283
13.231762,-7.059391,60.552283
11.791049,-9.266789,60.552283
9.989593,-11.18927,60.552283
7.876537,-12.76238,60.552283
5.52006,-13.943421,60.552283
2.995231,-14.69757,60.552283
0.377622,-14.993153,60.552283
-2.252888,-14.825829,60.552283
-4.814201,-14.205326,60.552283
-7.224898,-13.14317,60.552283
-9.412998,-11.673675,60.552283
-11.313326,-9.847581,60.552283
-12.861616,-7.716543,60.552283
-14.011101,-5.34493,60.552283
-14.732514,-2.809823,60.552283
-14.997738,-0.18889,60.552283
-14.796381,2.43881,60.552283
-14.142644,4.992279,60.552283
-13.052642,7.390433,60.552283
-11.555189,9.558643,60.552283
-9.703761,11.434824,60.552283
-7.554674,12.958342,60.552283
-5.169606,14.07755,60.552283
-2.625041,14.765626,60.552283
0.0,15.0,60.552283
0.0,15.0,60.552283
5.74254,13.270312,60.239583
10.146315,9.52802,59.672394
12.587825,4.531881,58.949951
12.813035,-0.806293,58.107878
10.957418,-5.58297,57.165933
7.494521,-9.059289,56.139306
3.129334,-10.771922,55.042578
-1.338074,-10.592636,53.884992
-5.161416,-8.725134,52.673037
-7.756565,-5.638824,51.413177
-8.836255,-1.97474,50.111876
-8.361066,1.593938,48.775619
-6.595592,4.478871,47.410818
-3.983113,6.276505,46.022879
-1.079757,6.805546,44.616208
1.577801,6.15388,43.19515
3.561613,4.593149,41.764051
4.615883,2.543024,40.327274
4.713115,0.444691,38.889152
3.98786,-1.294164,37.452542
2.812786,-2.479125,36.017436
1.477115,-3.139297,34.583495
0.105512,-3.340041,33.150375
-1.236708,-3.122434,31.717737
-2.488647,-2.488647,30.285239
-3.567381,-1.411219,28.852546
-4.318786,0.136294,27.419342
-4.527114,2.130037,25.985314
-3.895927,4.418703,24.550153
-2.097189,6.464145,23.113548
0.728093,7.673012,21.675184
4.151784,7.553359,20.235089
7.529437,5.840238,18.796214
10.111099,2.595761,17.363012
11.20942,-1.775741,15.939951
10.350797,-6.568834,14.531501
7.401865,-10.892107,13.142127
2.63772,-13.829807,11.776338
-3.269882,-14.628426,10.439552
-9.345682,-12.862705,9.138089
-14.468474,-8.556149,7.878318
-17.579719,-2.220623,6.666601
-17.889918,5.197844,5.509301
-15.055069,12.45496,4.412807
-9.283478,18.220663,3.386302
-1.340723,21.317658,2.444394
7.543617,20.953028,1.602331
15.868054,16.896874,0.879856
22.10754,9.566449,0.312768
25.0,0.0,0.0
25.000000,0.000000,0.000000
24.903055,-2.196266,0.000000
24.613781,-4.375581,0.000000
24.134520,-6.521062,0.000000
23.468118,-8.615964,0.000000
22.620349,-10.644351,0.000000
21.598048,-12.590578,0.000000
20.408335,-14.439173,0.000000
19.060771,-16.176164,0.000000
17.566179,-17.788353,0.000000
15.935519,-19.262685,0.000000
14.181502,-20.588003,0.000000
12.318104,-21.754513,0.000000
10.359370,-22.752537,0.000000
8.320367,-23.574401,0.000000
6.217177,-24.214428,0.000000
4.065939,-24.667069,0.000000
1.883152,-24.928599,0.000000
-0.314182,-24.997823,0.000000
-2.509023,-24.873744,0.000000
-4.684447,-24.556839,0.000000
-6.823758,-24.050439,0.000000
-8.910282,-23.358209,0.000000
-10.927730,-22.484845,0.000000
-12.860865,-21.437903,0.000000
-14.694631,-20.225425,0.000000
-16.414431,-18.856086,0.000000
-18.007504,-17.341088,0.000000
-19.461548,-15.692266,0.000000
-20.764670,-13.921774,0.000000
-21.907368,-12.043655,0.000000
-22.881006,-10.072632,0.000000
-23.677255,-8.023557,0.000000
-24.290432,-5.912377,0.000000
-24.716221,-3.755606,0.000000
-24.950503,-1.569783,0.000000
-24.991722,0.628248,0.000000
-24.840170,2.821426,0.000000
-24.496274,4.992699,0.000000
-23.962680,7.125367,0.000000
-23.244249,9.203082,0.000000
-22.345977,11.209526,0.000000
-21.274549,13.129161,0.000000
-20.038992,14.947530,0.000000
-18.648515,16.650262,0.000000
-17.113452,18.223945,0.000000
-15.446316,19.657027,0.000000
-13.659875,20.938174,0.000000
-11.767502,22.056968,0.000000
-9.784241,23.005529,0.000000
-7.725425,23.776413,0.000000